# 3D point list with one line of data per point:
#   POINT3D_ID, X, Y, Z, R, G, B, ERROR, TRACK[] as (IMAGE_ID, POINT2D_IDX)
# Number of points: 380, mean track length: 8.2032363321568891
30128 2.2503643511348845 0.8226716553157577 8.1452055275488 176 181 173 2.1819000240263851 42 6362 43 5988 6 2417 7 3849
30129 1.5863901087238372 0.90653273105668919 8.116008941253785 134 140 140 1.9653965609903696 7 6497 36 1711 6 2418 8 4417 37 2515
30149 2.1610734200632908 0.77602913020881137 8.1926242327069811 170 173 163 1.440839301765457 10 690 14 8566 6 2462 7 7575 37 7153
30154 2.0723023366069424 1.2015182272708025 7.9712274614016314 124 128 126 1.0651632311809729 10 1591 42 3323 6 2474
30179 2.8433534445355302 1.1414029074283334 7.9692783420119868 162 169 167 1.3429579854927991 11 643 6 2514 8 8829 43 2070
30181 0.31353185561355418 1.9911429242347098 7.5433363123481341 144 148 149 0.97557414749363147 13 1773 41 8902 6 2517
30187 1.6633401303042317 0.98245079309965788 8.086151805807706 113 109 113 1.4901187458184295 10 3613 14 8997 39 8717 6 2526
30205 0.0042712329177253443 2.3938544948568703 7.3373460319380444 108 106 102 1.9512030614433171 40 5539 41 4788 47 8442 6 2558
30210 2.9936995889727087 0.91170524228583327 8.0912188421485727 146 155 153 1.4306635343977594 44 4938 6 2567 8 2429 43 3408
30217 2.1334185058537223 1.0486690583153795 8.0310486521269535 155 162 161 0.65251709761841148 9 3331 39 2292 6 2576
30223 2.9065781319093933 1.1595148889309337 7.9748589401156647 151 160 158 1.0085089607973974 43 4399 44 2610 6 2587
30224 2.6286101210201074 1.0035064855815785 8.0567412519494059 129 136 143 1.1363945598730416 11 2999 42 5895 47 117 6 2589 7 5814
30233 2.4113063696564692 0.73302451474852648 8.219415441467671 133 142 143 1.3404969850222457 43 2416 6 2603 12 4191
30243 2.1812983619313324 0.77831644416192491 8.1907186516487371 173 174 171 0.42538214094283017 7 2205 6 2632 9 5345
30252 1.5522205769053976 1.2715712903286283 7.9306060986182256 146 162 163 1.3449105750015218 39 4893 6 2650 40 180
30254 3.1691164362858575 1.1392503942760197 7.9726455867020816 172 178 173 1.1473953259199412 14 149 6 2654 8 2903 11 4524
30283 2.5445881424121048 1.0164088372530957 8.0553898524879308 145 152 154 1.857509257964564 11 5543 37 814 6 2710 7 8393 8 5481 10 1290 44 7869
30288 2.162730011059963 1.3405291371288253 7.8877990280665982 157 165 164 0.79245886334389537 8 6845 39 8237 6 2716
30290 1.5629006559304306 0.98622731977631017 8.070082014054055 137 144 143 1.011958318212856 37 7483 6 2720 12 4061
30298 1.1886509715774365 1.1389698558790178 8.0100962980760002 172 177 167 1.4910991881262716 7 5935 46 1950 6 2731 39 3991
30299 2.7798528363518336 0.65035686590265795 8.2548765433225935 142 154 157 1.4180752588733738 11 5255 38 5966 6 2732 8 8292
30325 2.7962852888581384 0.57527752160426648 8.2997447019115249 149 162 163 1.0894572464164318 38 5143 6 2787 13 903
30331 1.4354140054244318 1.0980603475303305 8.0205131748724892 165 171 162 1.2103674894278194 13 6961 6 2798 40 5067 41 5002
30339 3.346414269606655 1.0554340211807118 8.0153028814240077 160 168 167 1.1362442551835217 12 3996 6 2814 7 8122
30342 0.79325010954287245 2.2715042135946706 7.3939906627741872 144 147 141 1.7758390022908084 12 4328 42 128 6 2822 8 5873 12 673 45 1463 8 5536 6 3081
30343 2.9035220948831277 1.0330262142866322 8.0418591051898876 155 161 162 0.25514907330244702 8 1832 6 2824 7 6843
30347 -0.015982943687969202 2.3977417874012357 7.3423103080651488 148 147 144 0.61990068974090018 40 5063 41 4654 6 2830
30359 0.51815698397432841 1.7011049202763922 7.716171020248149 127 138 144 0.48084392048877611 8 1083 41 7278 6 2855 49 4734
30362 2.1342666254424438 0.78265770962090742 8.1810953218753415 166 170 159 0.9489051646821165 12 703 38 3119 6 2859 42 8277
30365 1.3374996917715343 1.1213301649046195 8.0107373575061747 123 127 125 0.41358822626181507 7 8077 39 8382 6 2874
30369 1.5521247585138496 0.99581489297637038 8.0848216885545856 147 153 154 0.79908951680572393 15 1828 6 2882 8 6439
30374 2.1004787834950935 1.3787558363541526 7.8611050317971713 132 138 139 0.97997311224813177 7 4074 39 2244 42 5939 43 5577 6 2902 7 7209
30400 0.0068040358202907389 2.3784062062232998 7.3511434374068187 155 154 142 1.5148363064336074 40 5295 41 2686 6 2950 9 5019 13 8382 40 2356 40 7590
30401 2.7590978175836196 1.0127853194542267 8.0660380921469965 145 155 156 1.056432356513006 37 1549 46 1942 6 2952 13 7032 47 34
30402 2.532355624166077 1.2270540900424125 7.9473321869982678 144 151 150 1.4110674017642917 10 8549 11 134 6 2953 42 3872 45 8952
30404 1.9437553306915811 0.83119933826293058 8.1640976706675339 142 148 144 1.5426375200511711 8 8337 45 1605 6 2958 11 7462
30405 2.6964838790264403 0.61794397296372605 8.2797562066946213 126 133 136 1.0207205542071622 10 3038 11 131 14 8011 6 2962 11 5306
30421 1.9039768688653862 0.88514557355572188 8.1330363176807019 158 168 165 0.59486181675470595 8 2043 10 2008 6 2989 13 5208
30423 0.51373092168260415 1.7398110215506206 7.7192925320084136 123 133 138 1.1730376972502927 41 4644 43 1327 6 2991
30424 0.34673456839846245 1.5381569428288568 7.77272720761923 144 154 147 1.4647826523827774 40 2602 6 2992 25 8605
30436 1.495911125508476 1.0089116347622387 8.0748413324223147 166 178 176 0.96017631454183761 7 6529 15 1550 6 3014
30440 3.0832006572088209 0.86407502532868974 8.1281625351575162 146 160 163 1.4220254408049104 7 7864 8 2557 47 4075 6 3021
30447 2.4350517960994003 0.89355379795085821 8.1185703978991093 144 151 151 1.1082405283777883 38 5471 43 7776 6 3029
30454 0.36743505820029954 1.6253539825226666 7.7703414240802777 112 110 115 1.9054531884913313 40 4402 41 5197 6 3039
30457 1.4598045088194973 1.0966472618753338 8.0347971563447551 177 183 172 1.4846542525593229 39 5985 41 6700 6 3043 7 8934 8 2208 39 3982
30493 2.7760836179180526 0.62480689470701423 8.2855063565010862 139 149 151 2.0145193878148739 11 6179 36 3185 36 3141
30494 2.2623087738759735 0.67609643721256829 8.250735379676831 133 141 139 1.5929639073607127 36 1722 47 4570 6 3123
30499 2.5797857305436289 0.83811000483608022 8.1537318014960558 148 158 160 1.372517171244575 9 4507 6 3134 7 1811
30513 2.8878717707065253 1.2396761017750271 7.9433989323445768 113 118 121 1.3731044104190981 43 6149 44 5809 6 3165
30516 1.475863375349981 1.067654817758086 8.0428448758510243 169 178 170 1.4667316184861598 7 2109 15 1934 39 4927 6 3169
30530 3.0220451057222166 0.91273948036083652 8.1131361041683263 159 166 166 1.2336462178764738 7 162 8 7429 6 3196 9 4318
30540 0.65691054395240367 2.3500734341224421 7.3584339522926117 159 162 156 2.0400321295318071 13 8051 41 5611 44 6948 6 3219 45 5012
30562 1.9658825037838876 1.1652401725096946 7.9799697112244594 156 163 160 2.5153082668362714 9 3115 38 1278 42 3902 6 3260 8 8565
30569 -0.036513745283859415 1.8923805403315479 7.62638835091989 87 88 91 1.4164756775106029 39 8487 40 4046 6 3279 8 9107
30572 1.6521291273667387 0.90470525199131346 8.1301687482625784 125 131 130 0.46676044068297906 10 1373 47 619 6 3285
30577 0.12186363594432403 1.9022556322143356 7.5858881378160818 115 114 116 1.5051210653934379 39 4013 41 3534 6 3293
30582 1.4676059338688128 0.99476642326885967 8.0830803864090246 130 139 142 1.964166131611095 7 3881 37 6697 39 4458 40 5090 47 357 6 3301 8 3796 39 7351
30590 1.463055637292128 1.1328818226622064 7.9999203169137498 162 166 160 0.42603020623352728 39 4274 6 3314 7 3154 8 7148
30592 2.140848386871764 0.76635086374553685 8.192023059760178 169 170 160 0.87025191251014178 37 2048 6 3316 7 8849
30593 2.8099896509110458 1.0720081900233711 8.024853682664796 144 151 150 0.23584487433602677 44 2500 6 3317 7 8586
30594 3.1203355305099141 0.88814270416195762 8.1036614635350155 147 157 155 0.99385371488314422 7 349 8 6874 44 7648 45 4188 6 3319 43 3531
30617 1.5380053900947344 1.2404599137961703 7.9412066742978569 125 129 138 0.95647990635803293 39 5022 40 959 6 3366 7 8707 42 8130
30620 -1.768389268942091 2.3098427834263031 7.5894437829213013 145 155 147 1.7050830599096187 41 1177 6 3372
30649 3.2540581222250107 1.1414383941846484 7.9681761702322822 181 185 178 1.3872185422494652 8 5425 12 4967 6 3424 7 3500
30652 2.9644283820402064 0.97583853456410741 8.0655422973746269 152 163 163 1.6412040364883289 8 8614 44 3691 6 3435 43 1983
30655 1.8971706151268053 0.8643406198730279 8.1431908950084377 161 169 162 1.2338296187565836 12 6913 38 3089 42 6294 6 3438
30657 1.9116542253544759 0.88169970705183365 8.1367616224952037 153 164 158 1.1444024709764384 12 1864 38 3765 6 3440 8 9014 38 3038
30660 2.6003298131677641 1.2660617126075255 7.8996680787681921 160 165 159 1.1231301448365172 11 2216 43 4666 6 3444
30664 3.1067320443050419 1.124516500664609 7.9853341488550438 168 170 165 0.76561921917306031 44 5392 6 3448 9 6274
30676 3.0723213057412977 0.9440690952678058 8.0753630172318598 134 140 142 0.81395518028514324 8 2339 44 5326 6 3470 7 7271
30694 2.5376254739644346 1.2610103569503019 7.9234478740373326 173 179 173 1.4580715992177506 7 2213 12 6633 43 2429 6 3504 7 8425 9 2354
30700 2.6345846799383632 0.53622770603227221 8.3106918908873961 145 154 156 1.9251488471840579 36 3753 6 3510 12 4431
30701 0.47077867987536431 1.6978064232818937 7.7221331507611888 151 156 157 1.4809020997465201 40 2168 41 6218 6 3511
30708 2.6955245410189339 0.66216226836051473 8.2526828139718482 163 174 178 1.0874193408567863 10 8417 11 575 6 3518
30736 1.4548955756861672 0.88309836236880235 8.1288471484782523 123 125 131 0.92927930069424824 8 7185 37 6412 6 3568
30742 2.2099934432636754 1.2738464783809829 7.9159426094681242 142 143 140 1.4059702588085092 11 650 6 3577 9 3148 46 2809
30753 1.5365084111507781 1.2798036657948453 7.9215737958731189 121 131 144 0.54229557640292392 40 581 6 3597 39 5580
30757 -0.049008600391967111 2.3746789659203098 7.3453573297399055 143 145 138 0.92936091955047895 40 5075 41 5353 6 3605
30762 2.1496887656870913 1.3931976737456584 7.8510233290844686 150 157 152 0.81827487291561585 7 3845 8 1944 42 3428 6 3611
30775 1.4669646379219354 1.0181133414398111 8.0574599284473596 149 156 157 1.1414203769145508 7 5874 39 8269 40 4156 6 3635 41 4621
30783 1.8497278076777992 1.0368338906843411 8.051495622461383 141 155 157 0.96950755963601998 42 7253 6 3650 10 7612
30790 1.6392900208194645 0.899686585194169 8.1167750108634298 123 127 128 0.23980413234390419 10 2937 37 4799 6 3663
30804 2.8590151223013116 1.142766417953438 7.9776592365479555 161 167 163 0.70109390366350199 11 4353 6 3691
30818 3.2065602333778229 1.2044735906603132 7.9448342115201154 175 180 172 1.8849618949480431 14 8608 42 6788 6 3713 7 199
30819 1.6844742292342882 0.97451951712040519 8.0940219866483414 107 110 116 1.3638280199024662 8 8190 39 5165 6 3714
30848 1.591282386307294 0.88737746955234342 8.133994682138793 142 150 153 1.0352414232351337 9 7734 15 1210 6 3779
30849 -0.035928283669772541 2.2765905272156619 7.3991633993996695 165 168 156 1.0794197116325421 40 7243 6 3780 42 2389
30861 2.2351190995313606 1.402176775066281 7.8481545114948963 158 161 154 1.5688438008074863 9 634 14 4503 37 7130 39 6334 6 3799
30862 2.7609598785382281 1.0136179405873071 8.0555130969598565 136 146 149 1.3451251670682933 45 1367 6 3802 11 6588 13 9190 44 7567
30876 2.9053148280142631 0.97480408278347763 8.0736141595908162 162 172 168 1.0206675227795594 8 159 37 2089 6 3829 7 7320 38 5823
30877 2.588676833785839 0.79053792519096866 8.1664149161720854 138 143 143 0.85865288748421265 11 2674 43 6082 6 3831
30879 2.2196878901161639 1.160530709186862 7.9709743767211512 159 165 162 1.080082068059482 39 8225 46 1659 6 3834
30880 1.960015790876362 0.82430109127209694 8.1578645296709009 155 162 160 0.62428935604556235 45 2151 6 3836 8 4359
30888 2.2139158591781065 1.3844940779506794 7.8464003841117451 176 179 170 1.6404782625380598 14 5070 6 3848 9 339
30896 1.5400717501423407 0.91798291395544729 8.1248191704382542 146 155 154 1.3140262285737616 15 3096 36 3003 47 7124 6 3866 8 2111
30905 2.2417000119936161 1.3819325118205752 7.8614690915291527 182 184 176 1.1345013595934745 11 1057 45 2311 6 3881 7 5327 11 8374 38 7237
30916 2.9057435390793542 1.0566252993515703 8.0276528383683861 136 144 144 0.89796993415701631 44 6454 6 3902 45 6789
30933 1.657054585236704 0.86952284155570803 8.1299087335182243 142 151 148 0.89828758858967162 7 8081 10 3037 37 7338 6 3931 39 7937
30962 1.5484240154694571 0.95832693529976432 8.0886114513747494 148 157 158 0.52688613785792737 7 5600 38 6462 6 3987
30963 1.462405863181977 0.99587060676559114 8.0836554465323491 124 132 134 1.9911963815863645 15 9036 36 626 6 3988 9 5804 10 8736 12 6207 13 5576 39 5726
30980 3.259699513308286 1.0525801980471576 8.0185893107571982 168 176 173 1.5985942787804559 8 8626 12 4177 6 4024
31015 1.5215667976397491 0.89967346290766315 8.1310413722205919 147 159 155 1.6604871344480954 10 8413 15 5150 36 2915 6 4083
31021 -0.016279477394311098 2.4150902755745691 7.3397945704244432 129 128 125 1.5607121665863157 40 3686 6 4095 7 4325 47 5308
31034 2.9673466490568763 1.3337945541863514 7.8765540745992917 162 169 162 0.59033714850407393 7 7599 42 3478 6 4111
31036 1.4457274259046473 1.0406301395717086 8.0616173139074903 135 140 145 1.4103909961287364 15 5294 39 6606 6 4115
31044 1.708718016040123 0.84587715191821167 8.1435546183044121 161 168 162 1.4328357796791689 38 1855 42 6320 6 4124 8 2774 10 1119 14 1361
31057 1.8992794094001213 0.80988305834756069 8.1780221360499787 152 158 151 1.9344529232475154 15 6169 38 2243 6 4150
31075 2.394127338430974 2.642069757007008 7.1723011932449108 166 167 152 1.6514861458369376 34 8016 36 3687 6 4181
31083 0.30733610131574723 2.3343283165475883 7.3716370684156898 150 152 136 0.69087976145518271 39 6480 40 4607 6 4192
31107 2.2118626034259621 1.0817501472600242 8.0267571760666367 127 131 130 1.3889165300539001 9 713 36 1278 6 4232 42 7945
31108 2.5928880598848112 0.66091895735771566 8.2614805684189889 145 156 165 1.5976352200481165 10 8040 11 54 35 5415 6 4239
31124 2.0655506899191858 0.82296153697886698 8.1571074820849105 162 169 166 0.81843870674032881 45 3672 6 4268 38 1106 39 6285
31126 0.073249596873209269 2.1597518892579859 7.4492364930857704 160 159 145 1.9806846742164934 40 4244 6 4272 37 1158
31132 1.457839660227116 1.1299100489594229 8.0092371139372673 164 167 160 1.1533758331538189 7 6082 9 5952 44 2436 6 4281 8 2652
31148 1.6514179688040758 0.95811078977870257 8.1041922886706388 119 124 128 1.2069196071844839 37 6873 45 410 47 548 6 4313 10 4985 37 9047
31151 2.5952344130993645 0.62696245244952731 8.2675555810808881 152 170 173 1.7596958851141815 10 9032 11 1684 35 4098 6 4320
31158 2.2102833304678295 0.79831660522317882 8.1807537742808893 174 178 167 1.596536609883944 37 7159 6 4333 38 4690
31174 1.163115131117187 2.229164320222865 7.4190123955473037 144 150 151 2.2911148029531043 42 8293 6 4356 37 8997 41 4400 44 3454
31183 2.0678106014683291 0.88182259129306928 8.1358394834219183 167 173 166 0.60263315685374197 8 2411 37 1558 6 4380 14 405
31203 1.7544618507108074 0.91518922005398307 8.1158725736442658 158 163 161 1.2323602025598983 38 9193 47 909 6 4414
31211 2.4860844942555245 2.5025609570599876 7.2580402285478423 169 169 161 1.6983535672531451 34 5456 35 6664 6 4427
31223 0.36661442944314609 1.7268240139491351 7.677988938057041 150 156 142 1.107107910955117 26 2971 6 4449 39 6493
31226 2.4946082610379205 2.4380452218277107 7.2863124595259183 127 128 123 1.5297479219687167 35 1686 36 6407 6 4452 31 2387
31237 2.0250364011588293 0.90746518758262951 8.1189567716506801 146 148 140 1.0648944010272101 37 3034 43 6655 6 4467 8 3779 42 4600
31241 2.5910954104897397 0.89959455366363728 8.1136026949970379 124 131 133 1.1383858855793441 13 6744 37 2572 38 6915 6 4473
31246 2.3827673246782317 2.5626208572158857 7.209703315614223 155 156 151 1.0325772292641071 34 1205 36 2843 6 4483 7 3905 30 4961
31259 3.0506532439766216 1.1643092250812996 7.95365402732926 155 162 157 0.89803187175104748 7 7623 44 7931 6 4504
31275 1.8475659830742617 1.3434317279766095 7.8870946469241483 116 121 120 1.013161423032372 43 5715 45 1973 6 4533
31280 1.256371535518344 1.1823434391605823 7.982436741369126 126 131 136 0.50521563777520673 39 1008 40 770 46 4454 6 4543 8 2815 10 5730
31284 1.9978397030982025 1.3745977045690765 7.870860818207321 145 154 155 2.3383486848860038 43 5777 46 5551 6 4549 8 7897 42 6080 5 844 45 3126 7 5212 9 1377 6 4002 9 8074
31303 2.4720515117811499 2.4850169420644042 7.2670531767799682 164 166 154 1.5029282106647217 35 3970 36 5928 6 4588
31307 2.2381224800336081 1.3925856826912499 7.8438278304346944 174 178 170 0.84072573562262198 11 12 45 5642 6 4594
31352 2.4867470943778427 0.771294152814328 8.2001608796781955 141 151 153 1.6417912767142928 35 7311 38 6636 6 4688
31355 1.4585999982440494 1.1455677586839739 8.0011005687219843 160 164 157 1.1248340934083296 44 3559 6 4696 8 4838 39 6871
31371 3.0584830423698777 0.91660764023588359 8.0953655224512016 134 143 144 0.19498782718051841 8 2569 44 7951 6 4729
31373 3.2148559844328255 1.1558610255673967 7.9669482882600455 164 169 161 1.1690500994343549 44 7179 6 4731 7 7532 10 3986 13 4751
31374 2.9646942673489938 1.3152426584154533 7.885842362471724 174 183 176 1.7485110196002251 7 7023 8 4191 10 2851 36 3177 6 4733 9 5353
31376 2.7049667450619439 0.88382546674654205 8.140994226318611 113 114 115 0.97004595830384821 47 2279 6 4738 45 8393
31380 2.9843429818946805 0.94306896115492589 8.081605042531784 158 166 164 1.3418138489780773 10 8490 46 6615 6 4751
31391 2.2147999572182711 1.0451915781929075 8.0469555364208247 147 159 156 1.5583987418336127 45 7110 46 3616 6 4765 9 3536
31400 2.4365857343234363 1.1316399470295813 7.9899685764325508 137 145 146 0.70065703209845953 10 4340 14 481 38 1074 46 4446 6 4785 7 7077 11 5333
31411 1.5243050292812261 0.88566294517453203 8.1425428965251143 165 173 167 2.3032685073714565 9 6979 15 1179 36 676 6 4798
31425 1.5513751290911098 1.0280966172494246 8.0630385182764783 171 179 173 2.1031955936314564 15 7087 6 4825 39 3236 45 3993
31426 1.3984508172224397 0.91511311173710208 8.1261428303128511 133 140 140 1.7550352392573856 15 5231 37 7133 6 4827
31454 2.4726675947143932 2.4672007764293462 7.2685114187360602 158 159 147 1.3569593336202277 35 2816 36 4376 6 4881 7 5340 34 1675
31466 -0.92509343005629607 1.0403455967001225 8.0913361161870352 153 160 156 2.0405092537222247 40 1458 45 4224 46 3758 6 4900 42 8536
31473 1.5670991412559399 1.3019060004963687 7.9143716930888184 116 124 134 0.60999414141659147 39 2933 45 2461 6 4911 8 1228
31474 2.828745701624686 1.0467207109701051 8.0305025542615276 150 157 154 1.3699434093460947 8 6697 43 3863 47 79 6 4912 9 4244 11 3922 45 8992
31488 1.2219036487615913 1.1935875373622507 7.9702209788716933 154 158 154 0.73345405234583394 7 1879 41 5368 6 4946
31491 0.48471963646270244 2.3561256678829521 7.3614054411782055 119 115 103 1.1845524445040636 40 3019 6 4949 44 1962
31494 1.9830987467190593 0.93424932630003898 8.1095003384405793 164 170 165 1.8509179736979082 10 650 39 2303 45 614 6 4954 13 1836 14 9112 38 6869
31496 3.0212041258508844 1.1424499715252765 8.0185984488715221 151 157 155 2.2345520591833874 6 4956 7 5161
31497 2.7838311465927159 1.1647209897822932 7.9704977499850873 165 171 167 0.88496768718847518 42 4215 46 1886 6 4957 43 3447
31510 2.5618811722272374 0.54104539576652644 8.3229952519343939 168 176 174 2.1498489148680124 14 7848 36 2632 6 4980 8 5473 34 2846
31516 1.3938232780136537 1.1361899580330554 8.0199575418543265 165 172 170 1.5458592428388565 7 4707 6 4989 47 1447
31520 1.6727713985790307 0.95835029584199105 8.1006696190495457 105 104 107 1.6442627669646228 37 1117 39 3176 45 1518 46 2535 47 616 6 4996 8 4797 10 5586 11 3904 11 7753 39 5940 48 3360
31524 1.4333338125481241 0.84119076004494209 8.1567657845570896 152 160 156 1.9104464709906264 36 3412 38 7327 6 5003 39 7697
31534 2.8935924071797943 0.90867909921481493 8.0954675147733095 145 154 156 1.6801795812089857 8 6109 45 3763 46 7141 47 83 6 5018 7 1884 12 7745
31550 1.4425087452359209 1.0697102459041334 8.0437608573243846 154 156 152 1.2420601834838521 15 6046 37 7175 6 5043
31565 2.4735692391942194 0.86942692152378831 8.1333524245257287 137 146 147 1.1153515000186822 12 5428 46 2738 6 5069
31573 1.4439272571998982 1.0094587538845354 8.0737133878637692 142 152 156 1.2551869420517707 13 8804 15 1984 6 5083
31580 1.6076349527707627 0.94829504904359085 8.1067858335445084 122 129 133 1.1744747601480283 15 868 45 3163 6 5097 7 3127 11 2793
31591 2.2239528233321608 0.77849215709468667 8.1892431924641791 164 167 157 1.4908151175187399 10 471 36 8092 6 5119
31594 1.1741830462614886 2.2123976003985639 7.4270815456467254 104 108 112 1.1300039216419218 15 2460 6 5122 41 3086
31599 0.37769686019731236 1.7565616574356744 7.6855679964452621 173 174 160 1.2632695029829999 50 3999 6 5133 8 5542 15 7962 35 3967
31612 -0.73876964251396993 1.0492184413612493 8.104150482307686 156 163 159 2.0065693734890591 41 3931 6 5174 46 9121
31624 1.9892868988026318 0.84312045816984549 8.1550103412178387 163 172 170 0.89463933895358327 10 5727 45 898 6 5202 13 3244 39 4485 42 8648
31635 1.467511885701511 0.979213615424674 8.0972178944487521 133 141 143 1.5031261899032455 15 1939 37 7334 6 5218 8 2373
31637 1.547694133579905 0.95011439670532338 8.1067600969389773 155 165 165 1.1958090822099854 7 5040 38 5496 47 148 6 5220
31644 2.3131290026599705 1.2465350965314943 7.9346897566709327 122 127 135 0.58029703707701874 11 284 44 1814 6 5234
31646 3.0467310773721477 1.3359632140814837 7.8746894237056937 141 146 142 0.34977525240289076 10 9163 6 5238 7 1960
31653 1.4625050140491009 0.98027854343284215 8.0946428549739018 130 135 136 1.1797923600574767 36 1039 6 5259 13 5556 39 5253
31659 1.3453981220659887 1.1262895952076699 8.0095975835121376 153 162 162 0.42079216173641171 7 5889 44 3467 6 5274
31666 2.9818968632217113 0.89276308993585751 8.1007428224943183 159 170 167 0.69024449403981336 45 8126 47 1715 6 5290
31679 2.3938006109357834 2.427862342651772 7.2882555716193131 164 171 165 1.4880175394150021 36 664 6 5317 7 5571 9 7038 35 5857
31681 2.4959169067279792 2.4229248059772828 7.2992673011261617 144 142 134 1.0744883213182539 35 2827 36 7186 6 5322 41 8394
31684 1.5041291033627269 0.9494717501339961 8.1104837106935008 126 134 140 1.1755493200660569 15 1681 36 828 6 5330 8 4474 12 5626 13 2361 37 2451
31685 1.9939068361493448 1.1854261296564399 7.9693741667055278 150 159 159 1.4218191401337903 7 7280 12 4406 45 2623 6 5331 8 5123 8 5885 9 5954
31699 2.749829146895749 0.99210810988148956 8.0696991189367591 158 171 171 1.2539255763292931 46 3694 47 54 6 5351
31717 0.12440635682390498 1.6394137330743428 7.7107144939498946 87 92 98 1.7184518964524347 40 1126 6 5383
31721 1.8684798893261108 1.3434245766211554 7.8870896353879543 126 131 127 1.7009535095487316 40 5590 43 5967 45 6143 6 5393 39 8847
31741 1.4437313482340812 1.0109364833325081 8.0750952566552741 136 142 145 1.6258270687842997 36 1064 6 5439 13 7021 47 418
31742 2.3993261999664743 2.6303535886447467 7.1824217256541338 166 167 157 1.8997559020029331 34 2591 36 1922 6 5440 34 8516 35 2705
31752 3.155502599916947 0.92802461607698128 8.0966897495458934 156 167 165 1.1182881119974297 7 873 45 3279 6 5468 13 6274 46 5540
31757 3.0957664580016115 1.1690579149811262 7.9568069360651901 179 184 176 1.1830974131531282 14 7729 44 5800 6 5477 7 4730 8 4837 9 4373 11 4804
31758 2.8855365270856423 1.0588409680120703 8.020268601652381 155 164 161 2.3120955423479628 47 403 6 5478 8 1202 37 2082 44 5554
31763 0.38062136174300243 1.9870907719836386 7.5575095166390565 140 143 143 2.4185897953028661 13 4541 6 5487 10 3457 15 3813 12 5669 14 4834 45 3869 11 6797 35 9118 43 9125 10 6812 35 2441 36 1859 39 6254 15 4021 16 8162 41 6599 15 2409 20 1692 14 8119 11 5365 3 8536 38 319 36 697 41 2513 12 1539 39 1679 47 4059 9 8274 42 1367 10 8705 4 514 11 3021 44 5001 43 867 45 7548 12 8183 35 2010 36 8368 10 646 15 4511 35 2520 41 2393 6 7218 28 7430 40 3552 5 286 12 4506 16 9156 13 6293 39 3383 37 6080
31764 -0.050307179869285477 2.2816914009914058 7.4034701930302962 160 163 155 1.3383493906522757 42 6199 47 4398 6 5488
31770 0.61953258283573409 1.5897097736955041 7.7802623260019468 148 157 153 1.5125462319358434 16 7114 40 6959 6 5502
31797 2.7648739012998425 1.1674344838620854 7.9631666284612939 173 175 170 0.83461421737141106 14 4624 47 221 6 5551 7 5661
31800 2.2704085169210222 1.2654413054380065 7.9140311720788548 131 139 144 1.9146332026018911 14 4904 36 4729 39 6231 45 1267 6 5554 7 1261 7 5813 8 3492 8 5398 10 8738 44 7283
31803 1.4995676200829284 1.3865866230327417 7.8408776653981116 146 149 141 1.2152590018728167 9 5399 40 2530 6 5563 41 3467
31814 2.6574718555514321 0.55528854256309435 8.3011494750133448 155 164 163 1.7922946898051071 35 2420 38 6007 6 5586 34 2524
31816 0.45556285279349273 1.7056813015413927 7.6774941800783907 158 162 153 2.1312813575098004 20 1014 25 8116 42 2978 6 5589 40 7780
31834 2.086307370640399 0.73313823791039967 8.2075998178135787 164 172 163 2.704527736861476 47 3408 6 5634 39 5790
31843 2.2872557855290174 1.26708835959049 7.9206099730435628 125 134 141 0.71289522908543557 14 1803 36 3301 6 5652 7 5241
31848 3.0578463180991795 1.2550269068466959 7.9142719951722933 168 175 170 2.4936658940187373 8 1785 11 5548 36 9200 6 5660 7 2257 10 7744 37 3427
31850 0.88301569676496361 2.3343868423420915 7.3696377895149414 156 165 156 1.5376043714882084 44 4896 45 2413 6 5663
31851 2.2166795270586168 1.1770928989991727 7.9652582810495511 164 170 166 1.3952831229051794 37 2758 39 6468 46 7438 6 5665 7 519 13 7155
31865 1.5776118562730519 0.99835299694514046 8.0784728580767968 130 136 139 0.83734050391387138 13 2838 46 1643 6 5688
31871 1.1817561560139282 2.2188867566105066 7.4205196865138703 104 106 111 1.7037785118659805 44 3280 45 5863 47 4692 6 5701 42 6584 45 8980
31879 2.9896972840144813 1.1098194952221365 7.9860563403656686 145 148 144 0.24181371082262371 42 6562 6 5715 44 7168
31881 1.644532887264295 0.80849068398793478 8.1806526567880518 128 130 122 1.4630062969515603 36 2163 37 3850 6 5717 11 7335
31892 2.0045995356618604 1.4361568998503615 7.8384025338288685 136 145 148 1.1960559057611733 39 5601 40 8423 6 5736 41 3506
31893 2.841160560476903 1.1309310834936355 7.9909231634648297 170 177 172 0.50423368076673125 11 1489 44 1537 6 5737 7 8747
31901 2.8433720572702055 1.2183648924197381 7.9327357956720448 129 136 142 1.1195420396731297 8 340 11 2096 47 126 6 5748 7 1804 43 3438 43 3883
31908 2.4892376643204082 2.468593344113426 7.2669179734484004 160 159 148 1.6534812677602957 36 4697 6 5757 7 5322 34 5150
31909 -0.017384982971733118 2.2830058200528325 7.4047022985660211 153 153 143 0.922810817189333 40 4179 42 3137 6 5758 49 6843
31912 2.4039325872281632 2.5441186074685338 7.2345531619633894 147 148 143 1.7284439269962057 34 1905 35 1946 36 2226 6 5762 7 5455 30 5676
31922 0.042033664231543269 2.0150779893472421 7.5529349991394907 132 136 133 0.42421981244853857 40 3346 6 5782 7 7183
31923 2.5898053309709366 0.6421495409990996 8.2713890578921259 138 152 158 0.92143252016351784 35 2345 6 5785 9 2630
31932 1.1584667905650423 1.1130476127988103 8.0267318505845324 162 164 155 1.6654562642387389 7 1008 15 2455 41 4035 47 1339 6 5802 7 5302 8 4619 38 3806 39 2360
31940 2.2836270630964921 0.6881548287394742 8.2386115560969753 132 142 140 1.5980942277226176 14 3966 47 405 6 5816 9 3332
31951 -0.89124697937923991 1.1569704922396435 8.0385441178497636 154 164 160 1.102389331632126 40 3790 46 6754 6 5835
31959 1.6208564018586356 1.442243858490392 7.8430468372719977 177 179 166 1.5985974016905029 40 3870 47 5436 6 5852 39 7292
31961 1.4184536523048084 0.85297956435181521 8.1501623553558211 142 155 154 2.6861015887527606 38 2827 39 5976 6 5861 10 8991
31968 3.0208042587962094 1.1194243368320194 7.9751545188898669 151 163 160 1.4523660703853354 7 775 6 5877 42 1434
31972 2.5069222832275515 2.4734086664471913 7.2718421645746778 150 152 141 1.6256077948201597 34 7837 36 8042 6 5886
31986 1.4456924103907494 0.99126213578648037 8.080451933155981 130 137 140 0.39881046953907467 7 5920 36 3792 6 5917
31987 -0.00093792928316161611 2.4182730491418392 7.3393289507347941 154 157 145 0.86622200644640479 40 4891 41 3494 6 5921
31989 1.3864009143134717 1.1782829441983231 7.9576461990165503 129 130 129 1.0973122903853652 40 2023 41 8650 6 5923
31995 2.2637513960307722 1.3839648862836651 7.864073878374354 182 183 173 1.4612518247732951 9 1458 6 5938 36 6675
31998 2.4291941902646204 2.5497908036191621 7.2262688687012933 171 173 164 2.5157734092018988 35 2342 6 5948 41 9213
32007 2.618791960261754 0.54401107044987096 8.3237442950157003 138 144 146 0.84178629932476645 35 4698 7 5540
32008 -0.061218695559746648 2.3081791434166163 7.3837487171592979 152 153 147 0.83728371328261997 40 5506 6 5962 39 8432
32009 0.35146791554311585 1.6965286201251766 7.6861100960963213 100 99 100 1.4386788565269906 25 698 26 2239 41 6962 6 5965
32013 1.6862389346606592 1.2119771290719763 7.9759383098018573 139 139 134 1.3310783753575599 10 7081 44 8325 6 5970 41 4412
32017 -1.0948039934254412 0.95141005306953264 8.1446184400649759 138 138 133 1.1761062646500346 50 2786 6 5984 16 1444 41 7986
32024 -0.15248255109076367 2.4735414979281978 7.3026583955765973 130 127 112 0.48113616002937692 40 7834 6 6003 8 5136
32025 2.0593882815495723 1.2198952302601058 7.9517891044138231 128 127 124 1.6719948164050131 37 4897 46 5050 6 6004 12 8007 46 8487
32035 2.4330465273616193 2.3791716444911084 7.3086331271562264 144 152 147 1.979542238053011 35 4980 40 3261 41 4521 26 5951 30 7000 34 9080 35 4939
32037 1.8029350637975428 1.0570670621842613 8.0357153230078708 161 169 168 0.69938615036859553 12 3477 38 809 6 6031 7 7284 8 6671 12 1082 39 4849
32042 2.446146045338998 2.3921730548981972 7.3015205392512801 164 167 160 2.11815220234738 34 2652 9 7075
32050 1.2664273090671436 1.2714060717819717 7.9422761741410577 136 136 130 0.78442051647267552 39 2525 6 6061 40 8534
32066 2.49204464699765 2.4533938030888396 7.2812191107934021 141 142 133 1.4067987472664754 34 3396 35 7763 36 3103 6 6099
32069 3.0344052730637774 1.091408288679202 8.0044302600571751 143 147 140 1.9676394950121785 12 5630 36 3673 6 6102 47 3815
32071 -1.3336386217041936 0.7877412574362207 8.2404319753340616 131 140 138 1.4196143473787333 47 3448 6 6108 16 1409
32075 0.41128097049225554 1.8372494093140392 7.622554218563188 105 110 111 0.8090007456002779 26 2929 6 6112
32079 2.4613586978509208 2.4137615739656724 7.2932408776927913 161 164 158 1.1943077179386843 41 4464 6 6119 7 5785 9 8268 35 2900
32084 -0.75595178062868706 0.90916766213176736 8.1725806491293547 116 126 126 2.1636500787077706 40 6145 6 6127 46 8880
32092 2.3916573838912822 2.4894465353404387 7.2566747976421597 157 158 158 0.64699521787072301 36 1126 6 6143 7 4625 8 5430
32093 2.4241116314893403 2.4789275428660402 7.2656179405277364 117 119 122 1.5927519116189783 36 1635 6 6146 7 4790 35 797
32100 2.3235657095144613 1.2529645795025119 7.9273729472670604 148 157 157 0.86067080663851903 7 1044 14 5047 36 5574 6 6159 12 3421
32108 2.0651535719309781 1.2765560433434302 7.9188664057550913 164 170 163 0.75804128508945079 8 8319 6 6185 14 3112
32131 1.3887771601025345 0.94713831420028161 8.1033344849534785 145 150 149 0.8683923064122907 7 4549 6 6224 47 8053
32137 2.520831951755921 0.88749354132197922 8.1174568777216578 143 152 155 0.97857215744644488 7 3183 6 6235 43 1385
32139 1.3483910217201547 1.067164952921241 8.0422693342844074 144 152 152 0.48650807477960112 7 2591 6 6244 14 4529
32145 2.036324652889185 0.88550212738156076 8.1410489345211587 167 172 167 1.4653996921872818 14 401 6 6257 7 7125 11 4359
32177 1.4139404445136541 1.0975228301740718 8.0228294124231798 176 183 175 0.73948348408447806 7 1926 39 4447 6 6325 44 8284
32195 3.2053821091285197 1.1416503561078022 7.9743376054187571 170 177 170 1.2742787007380965 8 6840 14 1556 6 6368
32197 1.4690643186613794 1.0592376311317742 8.0260468310976218 166 173 166 0.80504049085086626 7 5996 6 6370 39 5428
32199 3.3155736412477865 1.2228750295245789 7.926495971033952 165 170 161 2.0310406642532239 7 9034 6 6375 12 1645 37 5999
32211 2.5989476254384285 0.95645686893639725 8.0900549400359498 147 160 163 1.448148073723122 8 788 38 6012 6 6405 42 6455 46 8257
32216 3.0126587132718061 0.93562450613150439 8.0852843415808557 151 159 159 1.4949120781209166 43 6272 44 2284 6 6422 10 1472
32225 1.7435969774402211 0.91154973013287166 8.1026666499757614 150 155 154 1.1849480442254228 9 5255 38 2719 6 6456
32226 1.6136667694221869 1.044012601525405 8.0472077157458948 166 170 163 2.5288505222404876 8 5196 44 3479 45 427 6 6458 8 542 11 2772 13 5854 37 7291 39 1977 10 8526 42 8067 44 2476 7 2555 38 5132 44 3591 11 3208 48 2061 7 828 36 553 6 17 13 2296 40 4287 9 1065 15 1027 12 2206 39 2092 7 2217 9 5516 13 4549 6 6324 14 3217 7 5324 10 3089 47 53 12 5469 39 5037
32230 1.6352581510981368 0.93059868422768344 8.1022868732808782 143 144 146 0.76268679825853603 7 8209 10 1569 6 6466
32239 3.3052914361747789 1.193696601149832 7.9442604276984641 181 184 179 0.62438697621834582 7 1850 6 6485 9 556 10 2729
32250 2.0558999554068818 1.4601521371800625 7.830962130033825 144 152 153 1.1253662998508125 8 7465 10 2043 6 6509
32252 2.1236200962626284 0.82357419935303944 8.1728881389558836 182 186 178 1.3841152681095843 10 184 14 4711 6 6513 8 1892 14 3310
32253 1.2992413767746862 1.0765275890832922 8.0315814753509738 145 148 147 2.1325015082896961 7 6081 41 6251 6 6514 7 7897
32268 2.2362684101742505 0.98871269604267964 8.0535582416294567 181 185 180 0.19089199124646195 7 6753 8 7388 6 6548
32270 2.2529415467154026 0.98924167917321526 8.053097249124832 176 180 174 0.19698538980893412 7 6417 8 7046 6 6552
32274 1.3137651963341754 1.0684570451878681 8.0452883814374641 140 146 145 1.2363286864224634 7 6120 41 6741 6 6563
32303 2.3654184109130125 0.95618435669090152 8.0841388670488747 167 172 164 0.35627630734877935 8 7362 6 6641 43 7028
32307 1.8252855341858787 0.87504932773128763 8.1507418321853677 158 165 164 1.1642360886923302 7 5940 15 3098 6 6651
32308 2.1589513234918707 1.4150865450409975 7.8466608654599614 169 176 171 0.76390649756173978 8 5480 45 3284 6 6653 38 4328
32317 2.5455394860104961 1.0612963428170414 8.0157620617977461 131 141 151 0.591282850417716 7 771 8 6203 6 6675
32346 0.052893332999462341 2.1895358049916642 7.4679739160979226 168 170 156 1.8186026622895024 39 1723 6 6729 10 6974 17 5890
32354 2.6656727619265155 0.94310751013800065 8.0966890071900242 124 130 134 1.1883421350825869 38 5647 46 3484 6 6744 37 1768
32360 1.3501312796489866 1.0397193028390379 8.0607636136281187 164 171 168 0.46181936536350121 7 2175 6 6758 39 5690
32367 2.1286770155885453 0.80999508384671615 8.1539987667795142 186 188 181 0.38576069208242009 7 7550 8 7350 6 6771
32370 2.9815281299130612 1.0526233480980525 8.0277379470814942 137 142 138 0.31355916424883828 7 596 47 5085 6 6775
32391 3.3974865614407497 1.2806100320968257 7.8905946902915494 160 167 163 1.3920229280533085 7 7252 6 6805 12 5177
32397 3.0983245191422943 0.88808884103115149 8.1040194230268323 148 161 159 0.54881368066367431 7 7783 44 6920 45 7314 6 6817
32409 2.2505264020198181 0.86274387116844342 8.140164029786364 176 180 173 0.67234573966722166 42 5913 6 6835 8 8277
32410 1.7364078215449552 1.0663642709943226 8.033715361856185 154 157 152 1.406604427996281 9 8854 11 4573 6 6836 37 3561
32418 2.8263430388257271 1.2319181022390255 7.9261461859789355 131 136 141 0.31644528675763156 8 533 11 1867 6 6848
32440 2.0000425273958786 0.79274863172590637 8.1769769050998189 157 157 150 0.87564442999165226 38 1523 45 8275 6 6903
32443 3.3363546028739837 1.2003293662410339 7.950785755021113 170 178 173 1.7571178791328437 7 4974 6 6910 45 6726
32445 1.4722183191264324 1.1016260122507282 8.027819951158488 174 179 171 1.1339945664819826 14 1650 6 6914 44 3686
32461 3.0858247229524003 0.87982074252682396 8.120880571892247 155 164 166 0.33813213524126806 7 6336 8 8962 6 6945
32465 2.1269434571319752 1.3828393984123548 7.8634763213059937 149 154 152 0.86930441916930379 8 6508 6 6952 38 2428
32471 2.2378425007198608 0.98318296900465674 8.0756287345209241 173 178 171 1.0504871406892453 8 4145 47 5172 6 6964 8 5678 13 6917
32473 2.8237686395968273 1.2793364414878696 7.9063738731754958 157 162 162 1.1290612166216583 8 6244 11 5592 6 6972 7 7723 43 3688
32485 2.2258497347463795 1.2688995614095446 7.9271426075672045 151 160 159 1.3615130092934498 7 1683 39 1618 7 5951
32487 2.3198822718398708 0.8170063787332269 8.1749819174819987 125 131 129 0.99027366619402191 36 1786 6 6997 37 6714
32494 2.7257851650864784 1.1769418315968612 7.9644516418651783 155 153 144 0.97291556319574701 7 2258 6 7010 9 4491
32501 2.0300906388118749 0.78613561900335827 8.1833249972846804 163 167 163 0.77758685975360597 7 8952 6 7028 42 8551
32504 1.5576386771174318 1.2453378760893909 7.9313325345090453 148 160 162 1.072839587193972 7 6192 9 8590 6 7036
32508 2.6008904912733724 0.94802858529878431 8.1081895047685215 138 146 148 0.56602354726965032 8 3292 6 7047 38 6407
32509 3.1503674009705347 1.1435877495071998 7.9720877504353025 171 177 170 0.55259485836658917 7 1693 6 7050
32511 2.5513389359124434 1.2273271120779388 7.9395964961501617 173 183 178 1.0938841997375384 11 517 6 7055 46 5927
32516 2.7742917138424508 1.1566441068826014 7.9738079612880393 170 173 169 0.89858580644624564 11 5187 6 7061 7 7245
32539 2.8231045477018029 1.2935327752978245 7.8974085494278023 162 164 160 0.89037816985906593 8 2659 11 4937 6 7104 7 3468 43 7032
32547 2.0246337760399431 0.94563289293844288 8.1004941805994708 157 159 152 1.176650566792953 12 1872 38 1168 45 857 6 7125 8 4726 10 8287 11 8083 13 6987
32560 2.4050208605119998 0.74801758422453668 8.1983465641860089 123 129 134 1.224569890094636 14 7867 6 7162 12 1590 13 7560
32570 2.6046408662108713 0.84018712239311866 8.1570337768633507 135 146 147 1.2995248694597483 8 7402 36 4448 6 7188 37 1892
32581 2.4551764223332211 1.1659350289886579 7.9692865025437873 99 100 102 1.4650635591575152 8 9040 42 7155 6 7221 13 4700 13 7142
32587 2.2046185340850846 0.82653017865515821 8.1584058245274598 168 173 162 0.95075539481776528 37 477 6 7233 43 3200
32589 3.2721102551827355 1.1411679278980029 7.9549344329893676 167 172 166 1.6824636605650771 42 3550 6 7237 7 8624 10 8504
32597 1.5563533196604877 0.97686511679286514 8.0985075829359321 149 157 159 0.59142121486104948 7 2644 6 7260 11 1756
32612 2.1353375821088103 0.75358150446901495 8.1960789786320429 140 146 140 0.46972013093431658 38 2154 6 7285 12 4942
32618 1.6372411802223998 0.88561753777181207 8.1287946255484922 131 137 137 0.96962598741432549 10 3277 6 7298 9 7969
32621 2.6177723902288781 0.88981327010643352 8.1211620308411892 137 144 145 0.71899998431713841 10 8498 6 7307 11 5058 37 8084
32638 2.6466083159453677 0.62992229289185697 8.2684758276385057 151 162 163 1.156236762930243 10 8465 11 308 6 7336
32639 3.9887038742080883 -0.5413500834740641 8.8294430813829585 128 136 143 1.6142235163791732 9 1996 8 6094
32645 2.0686580355092361 1.3233751047569429 7.8843960943701239 178 180 172 1.1011772926251431 9 2961 13 4644 6 7363 10 7940
32647 2.0078586770892288 0.84284090226596931 8.1586323838331811 161 169 166 0.9858068421779248 10 1296 42 3291 45 687 6 7366 7 4825 13 2780 43 2109
32652 3.2367016538205404 1.214714824002411 7.924631519891042 175 178 172 1.0141471445031143 7 6704 12 382 6 7385 7 6147 9 4300 10 8479
32656 2.9071845099178071 1.0644138828576486 8.0274390456931428 152 161 159 2.3932286656447928 8 8325 6 7390 44 7494
32687 2.029993751836459 1.0449521612483288 8.0445512608743268 169 179 170 1.2508822786208198 10 6244 6 7471 44 5822
32689 0.11796662276510256 1.991276542620507 7.5571245441853447 152 157 148 0.80290297397538823 7 2993 39 3008 6 7473 42 1570
32714 1.4058241834306697 1.1459304899458949 8.0045898690559376 154 153 147 1.0637711513034087 7 5954 44 3874 47 992 6 7530 8 5271 9 595
32716 2.6765560752644006 1.0530102919356019 8.0348969996400523 145 154 156 1.059664225973127 11 1844 38 2651 42 5603 6 7533 8 2128 42 6272
32732 3.0487658262452006 0.89354804570571955 8.0899196465866261 141 150 151 1.0810558965390136 7 7374 6 7561 43 6518
32734 1.2405514046850774 1.1769310973052198 7.9780613682154806 149 152 148 1.2128201355143329 39 997 40 74 6 7565 8 836 9 5971
32737 2.971538072540592 1.3416657808701762 7.8687090810860472 170 176 170 0.60907922467650555 8 2615 11 5342 6 7576 7 8320
32751 1.2371012391705911 1.1744039285711154 8.0203344911778895 160 165 162 0.99230782024344932 7 1944 41 8822 6 7610
32755 3.055426912744692 1.3294592943366128 7.873254131793507 176 181 177 0.85965396482514367 8 1701 11 4383 6 7621 7 1709 8 7079
32772 1.6267477777855959 0.90461503934560827 8.1284552207991556 135 143 145 0.48023554029780069 15 2391 6 7659 7 8087 8 6413 48 3391
32798 0.060547479000402755 1.8886597653963662 7.6060798584838896 126 126 125 2.7740898749543632 37 1490 39 7574 42 8111 6 7704 36 7435
32805 2.2232986456772896 0.8238631010162536 8.1666613840750255 176 179 172 0.58814844574513359 10 1467 6 7730 7 4274
32807 0.39563145680178075 1.5846772262532631 7.7466839137950272 106 110 113 2.0490679524316899 40 1428 6 7733 13 5852 25 2192 25 8965
32808 2.6128871483574576 0.61610189264389226 8.2858671610213808 165 176 176 1.4341270185890567 10 7666 11 556 6 7736
32825 1.6189977782102947 0.94594188056206929 8.0971653833232811 127 135 138 1.9123936412727747 10 8460 15 5406 6 7762 39 8182
32832 2.8451204625642994 1.1877053796998538 7.9487984731384742 130 136 139 0.32764546811322476 8 2221 11 570 6 7775
32838 3.0294158623761933 1.3413044186965839 7.8583576592762387 157 163 157 1.0030569950706123 7 2657 10 2810 6 7783 7 7595 9 8926 42 3355
32842 2.7974118077914825 0.56069709688725478 8.3085942393559673 157 168 169 1.1318820773943339 38 2768 6 7789 13 5430
32856 1.2024666932663275 1.2170659466644616 7.9718973233248782 149 152 144 0.32128860981124996 7 1756 47 7931 6 7812
32873 2.8103231783548828 1.2163883315508126 7.93419837085131 155 161 161 0.35394854887408439 8 1795 11 5460 6 7871
32879 2.8110134081705 1.1133074062277397 7.9967699604049391 170 176 170 0.39811653847759582 11 520 6 7884 7 6972
32900 3.3903149803676138 1.1459571227889069 7.9632206214215504 172 177 171 1.3381556028612085 7 6503 12 4300 6 7929 7 7141 8 6419 9 8877
32920 1.9035637164870791 0.89929677803460395 8.1278179041351013 140 147 143 0.88579187868096909 10 3551 6 7970 8 6839
32933 2.5024929291574098 0.94751531228909225 8.0874267044382186 156 164 162 0.73540630306214483 7 3844 42 7773 6 8004
32937 3.2739625208397398 1.0827832329682643 8.0021824218874098 167 173 169 1.0698177861698885 8 7377 12 6924 6 8010
32941 1.8882153988706247 0.84608237509786577 8.1426761699866272 155 158 150 1.7576360336055543 10 4090 38 3573 6 8018
32958 2.5102204652522699 1.0128446100056583 8.0521822763914308 170 179 174 1.6257213840793661 11 5220 6 8053 8 3096
32962 1.3935160136004308 1.0821432718860444 8.0277972294690603 165 173 168 0.60399289135564693 39 3607 44 4963 6 8058 7 3209 14 4832
32973 3.9392558549386667 -0.54440027426279802 8.8278049205897311 111 108 105 1.6146282393945139 9 2079 8 6375
32981 1.4098398651848145 0.86504777341478467 8.1461802133544747 130 139 141 1.4149474500333417 11 1720 38 2622 6 8091 8 1965
32982 1.8768977659741035 0.8083820079410422 8.1755107917627523 161 166 158 2.7612590190567539 15 2945 38 4689 6 8092 8 3811 13 7028
32992 2.8744103605205118 1.2784817141198359 7.9019260614797355 131 138 144 0.28859324293411942 8 33 11 5242 6 8115
32994 0.038384689818762946 1.9187668144106307 7.5973282441535863 149 156 149 0.98974922508532881 40 4308 6 8117 10 6682 41 3646
33011 2.9704855294048289 1.3555291646293677 7.8595818568626745 173 177 173 0.62161549466659616 8 2421 11 5942 6 8165 7 9179 36 1626
33019 2.1458107808475457 0.77834929242377038 8.1957865475704477 177 180 171 1.4480776222050673 10 592 6 8183 7 2214 9 8977 14 1336
33025 1.4091280408786313 1.0537393337270551 8.0596736159356688 143 153 156 1.7030527803982307 15 6301 39 7948 6 8191
33050 1.8645802469447748 1.3966041014110899 7.8537794417711 137 142 141 0.3176351995524162 39 3148 44 694 6 8245
33066 1.58434975078328 0.91752102126398238 8.1239379015743296 144 150 152 1.1579980437321209 10 2924 12 4101 6 8274 7 4747 9 7332 45 7171
33068 3.3808958972554701 1.2801463591876772 7.8911844930631316 165 171 166 1.3453131349707572 7 7468 6 8280 12 3838
33070 2.6461725433862364 1.0035576483841695 8.0589462025618008 133 141 143 1.6684930683057422 11 5637 43 4256 6 8284
33074 2.7136707003724885 0.61894359714913327 8.2787922233776783 144 153 154 0.95162065164403797 10 2897 11 189 14 8348 6 8292
33079 3.3579239965696837 1.0074443866834188 8.0494570600605275 152 161 162 2.0450093090376655 42 3701 6 8301 13 97
33108 2.5626026488661977 0.65630369229099372 8.2541382709918167 116 110 114 1.7558515804743704 11 2246 38 5397 6 8368
33109 2.5830162647140527 1.2582251858889437 7.930179376827482 169 174 169 0.68689785418109639 11 1591 42 6538 6 8373 7 7771
33113 1.5650519345496183 0.96226295414466911 8.0925605147269994 135 142 143 0.36757448164890089 7 7916 39 8534 6 8378
33119 1.5603283563388326 1.2178833436437171 7.9518818397886202 128 140 148 0.8724972734290628 7 3123 42 6588 6 8390 12 8805
33123 1.7051034973280443 0.90735692393742517 8.1272777690810507 123 128 124 0.56655275071428524 12 1176 39 3851 6 8397
33143 2.1252264347609735 0.7927376453622631 8.1783271092147718 180 183 175 1.8571386266091481 8 6086 6 8436 10 1189 39 5215
33144 3.0482730575593333 1.3343570841809971 7.8790692583108433 151 155 150 1.1985541540270823 7 6027 10 2879 6 8438 9 1131 44 3975
33145 2.9244834134203179 0.89812783877056723 8.1266207321460993 158 166 166 1.1551300045661401 9 2285 6 8441 7 6490 8 5626
33149 2.664097992809169 0.61574086567119857 8.2759024124009137 162 175 176 1.0971030110998397 10 7780 11 567 6 8446
33162 2.9871032681200362 1.3577119167609886 7.8611410165653322 169 174 169 0.71442845797536347 8 1096 11 4912 6 8466 7 6033 36 3785
33166 1.5842349670656137 0.99032715512052361 8.0769764262112087 133 138 139 1.6455295697636008 10 3690 15 1461 6 8481 7 7044 8 2107 39 3216
33174 1.9882215464159791 1.202027659323641 7.9655488723860426 151 160 161 1.2624138628747585 10 4999 39 3576 6 8509
33176 1.4969030109755157 0.95580273920070691 8.1071091653129326 126 132 135 1.7041001899849373 38 4656 47 303 6 8516 8 5011 39 2994
33178 3.1354787666097867 0.95046180067861719 8.0735598777274191 135 140 138 0.40335776918132366 7 4276 6 8519 45 4640
33180 1.7399828145152583 0.89741917215650235 8.1178031132202371 139 143 144 1.6760687044170595 9 5136 38 4712 6 8522
33189 1.9764492969351548 0.94140271870912895 8.097420541209404 172 179 172 0.9754146131170871 12 413 14 3578 6 8542
33196 2.9268029023190194 0.89926389094861447 8.1050895975062129 130 139 139 1.2087000009009372 8 1854 6 8565 37 4144
33199 1.6262366180989534 0.88802603408000391 8.1346025412003478 126 133 135 1.321401700640537 12 5303 47 940 6 8571 8 6367 49 6111
33200 0.012826341710651959 1.7964279448659148 7.6692660920212656 96 92 95 1.0822087284536417 40 4637 6 8572 8 8535
33201 1.5205587702795029 1.1527045933003839 8.0081842884517354 160 168 160 1.2011627098651034 9 5264 6 8573 8 2971
33205 1.3206944144086428 1.1317483474639074 7.9988078558177236 157 159 154 0.48602087576661784 7 3741 39 8300 6 8579
33211 -0.91171819740155524 1.0546851431446815 8.0814042533194392 148 155 150 1.2727968535877094 40 2852 6 8590 46 5148
33215 3.2641531256600862 1.0245048713448086 8.0255066200457179 162 172 170 1.2346253991865306 7 425 42 7271 6 8597 10 8640
33216 2.6627675013254244 0.81662975034245777 8.1779688422073811 132 137 137 1.8837869404770144 12 4434 6 8602 7 6377 8 6608
33220 2.8131502632849221 0.6135036336329045 8.3048246958414431 130 138 139 1.369305313252833 10 8708 11 4896 36 6690
33222 1.5854865194236354 0.90226775036703077 8.1279528628267759 139 146 146 0.96043657528966442 10 3015 12 1386 6 8618 7 7970
33223 2.4467546159904305 0.71967592036850536 8.2246119339140265 149 158 158 1.7443776636126174 9 3408 12 1568 6 8619 38 1992
